1.072313e+01, -6.191000e+00, 6.801900e+01, 0, 0, 1
1.765133e+01, -1.019100e+01, 6.801900e+01, 0, 0, 1
2.457953e+01, -1.419100e+01, 6.801900e+01, 0, 0, 1
3.150774e+01, -1.819100e+01, 6.801900e+01, 0, 0, 1
3.843594e+01, -2.219100e+01, 6.801900e+01, 0, 0, 1
4.536414e+01, -2.619100e+01, 6.801900e+01, 0, 0, 1
5.229235e+01, -3.019100e+01, 6.801900e+01, 0, 0, 1
5.922055e+01, -3.419100e+01, 6.801900e+01, 0, 0, 1
1.072313e+01, -6.191000e+00, 6.001900e+01, 0, 0, 1
1.765133e+01, -1.019100e+01, 6.001900e+01, 0, 0, 1
2.457953e+01, -1.419100e+01, 6.001900e+01, 0, 0, 1
3.150774e+01, -1.819100e+01, 6.001900e+01, 0, 0, 1
3.843594e+01, -2.219100e+01, 6.001900e+01, 0, 0, 1
4.536414e+01, -2.619100e+01, 6.001900e+01, 0, 0, 1
5.229235e+01, -3.019100e+01, 6.001900e+01, 0, 0, 1
5.922055e+01, -3.419100e+01, 6.001900e+01, 0, 0, 1
1.072313e+01, -6.191000e+00, 5.201900e+01, 0, 0, 1
1.765133e+01, -1.019100e+01, 5.201900e+01, 0, 0, 1
2.457953e+01, -1.419100e+01, 5.201900e+01, 0, 0, 1
3.150774e+01, -1.819100e+01, 5.201900e+01, 0, 0, 1
3.843594e+01, -2.219100e+01, 5.201900e+01, 0, 0, 1
4.536414e+01, -2.619100e+01, 5.201900e+01, 0, 0, 1
5.229235e+01, -3.019100e+01, 5.201900e+01, 0, 0, 1
5.922055e+01, -3.419100e+01, 5.201900e+01, 0, 0, 1
1.072313e+01, -6.191000e+00, 4.401900e+01, 0, 0, 1
1.765133e+01, -1.019100e+01, 4.401900e+01, 0, 0, 1
2.457953e+01, -1.419100e+01, 4.401900e+01, 0, 0, 1
3.150774e+01, -1.819100e+01, 4.401900e+01, 0, 0, 1
3.843594e+01, -2.219100e+01, 4.401900e+01, 0, 0, 1
4.536414e+01, -2.619100e+01, 4.401900e+01, 0, 0, 1
5.229235e+01, -3.019100e+01, 4.401900e+01, 0, 0, 1
5.922055e+01, -3.419100e+01, 4.401900e+01, 0, 0, 1
1.072313e+01, -6.191000e+00, 3.601900e+01, 0, 0, 1
1.765133e+01, -1.019100e+01, 3.601900e+01, 0, 0, 1
2.457953e+01, -1.419100e+01, 3.601900e+01, 0, 0, 1
3.150774e+01, -1.819100e+01, 3.601900e+01, 0, 0, 1
3.843594e+01, -2.219100e+01, 3.601900e+01, 0, 0, 1
4.536414e+01, -2.619100e+01, 3.601900e+01, 0, 0, 1
5.229235e+01, -3.019100e+01, 3.601900e+01, 0, 0, 1
5.922055e+01, -3.419100e+01, 3.601900e+01, 0, 0, 1
1.072313e+01, -6.191000e+00, 2.801900e+01, 0, 0, 1
1.765133e+01, -1.019100e+01, 2.801900e+01, 0, 0, 1
2.457953e+01, -1.419100e+01, 2.801900e+01, 0, 0, 1
3.150774e+01, -1.819100e+01, 2.801900e+01, 0, 0, 1
3.843594e+01, -2.219100e+01, 2.801900e+01, 0, 0, 1
4.536414e+01, -2.619100e+01, 2.801900e+01, 0, 0, 1
5.229235e+01, -3.019100e+01, 2.801900e+01, 0, 0, 1
5.922055e+01, -3.419100e+01, 2.801900e+01, 0, 0, 1
1.196009e+01, -3.204697e+00, 6.801900e+01, 0, 0, 64
1.968750e+01, -5.275250e+00, 6.801900e+01, 0, 0, 64
2.741491e+01, -7.345802e+00, 6.801900e+01, 0, 0, 64
3.514231e+01, -9.416354e+00, 6.801900e+01, 0, 0, 64
4.286972e+01, -1.148691e+01, 6.801900e+01, 0, 0, 64
5.059713e+01, -1.355746e+01, 6.801900e+01, 0, 0, 64
5.832453e+01, -1.562801e+01, 6.801900e+01, 0, 0, 64
6.605194e+01, -1.769856e+01, 6.801900e+01, 0, 0, 64
1.196009e+01, -3.204697e+00, 6.001900e+01, 0, 0, 64
1.968750e+01, -5.275250e+00, 6.001900e+01, 0, 0, 64
2.741491e+01, -7.345802e+00, 6.001900e+01, 0, 0, 64
3.514231e+01, -9.416354e+00, 6.001900e+01, 0, 0, 64
4.286972e+01, -1.148691e+01, 6.001900e+01, 0, 0, 64
5.059713e+01, -1.355746e+01, 6.001900e+01, 0, 0, 64
5.832453e+01, -1.562801e+01, 6.001900e+01, 0, 0, 64
6.605194e+01, -1.769856e+01, 6.001900e+01, 0, 0, 64
1.196009e+01, -3.204697e+00, 5.201900e+01, 0, 0, 64
1.968750e+01, -5.275250e+00, 5.201900e+01, 0, 0, 64
2.741491e+01, -7.345802e+00, 5.201900e+01, 0, 0, 64
3.514231e+01, -9.416354e+00, 5.201900e+01, 0, 0, 64
4.286972e+01, -1.148691e+01, 5.201900e+01, 0, 0, 64
5.059713e+01, -1.355746e+01, 5.201900e+01, 0, 0, 64
5.832453e+01, -1.562801e+01, 5.201900e+01, 0, 0, 64
6.605194e+01, -1.769856e+01, 5.201900e+01, 0, 0, 64
1.196009e+01, -3.204697e+00, 4.401900e+01, 0, 0, 64
1.968750e+01, -5.275250e+00, 4.401900e+01, 0, 0, 64
2.741491e+01, -7.345802e+00, 4.401900e+01, 0, 0, 64
3.514231e+01, -9.416354e+00, 4.401900e+01, 0, 0, 64
4.286972e+01, -1.148691e+01, 4.401900e+01, 0, 0, 64
5.059713e+01, -1.355746e+01, 4.401900e+01, 0, 0, 64
5.832453e+01, -1.562801e+01, 4.401900e+01, 0, 0, 64
6.605194e+01, -1.769856e+01, 4.401900e+01, 0, 0, 64
1.196009e+01, -3.204697e+00, 3.601900e+01, 0, 0, 64
1.968750e+01, -5.275250e+00, 3.601900e+01, 0, 0, 64
2.741491e+01, -7.345802e+00, 3.601900e+01, 0, 0, 64
3.514231e+01, -9.416354e+00, 3.601900e+01, 0, 0, 64
4.286972e+01, -1.148691e+01, 3.601900e+01, 0, 0, 64
5.059713e+01, -1.355746e+01, 3.601900e+01, 0, 0, 64
5.832453e+01, -1.562801e+01, 3.601900e+01, 0, 0, 64
6.605194e+01, -1.769856e+01, 3.601900e+01, 0, 0, 64
1.196009e+01, -3.204697e+00, 2.801900e+01, 0, 0, 64
1.968750e+01, -5.275250e+00, 2.801900e+01, 0, 0, 64
2.741491e+01, -7.345802e+00, 2.801900e+01, 0, 0, 64
3.514231e+01, -9.416354e+00, 2.801900e+01, 0, 0, 64
4.286972e+01, -1.148691e+01, 2.801900e+01, 0, 0, 64
5.059713e+01, -1.355746e+01, 2.801900e+01, 0, 0, 64
5.832453e+01, -1.562801e+01, 2.801900e+01, 0, 0, 64
6.605194e+01, -1.769856e+01, 2.801900e+01, 0, 0, 64
1.238200e+01, 0, 6.801900e+01, 0, 0, 128
2.038200e+01, 0, 6.801900e+01, 0, 0, 128
2.838200e+01, 0, 6.801900e+01, 0, 0, 128
3.638200e+01, 0, 6.801900e+01, 0, 0, 128
4.438200e+01, 0, 6.801900e+01, 0, 0, 128
5.238200e+01, 0, 6.801900e+01, 0, 0, 128
6.038200e+01, 0, 6.801900e+01, 0, 0, 128
6.838200e+01, 0, 6.801900e+01, 0, 0, 128
1.238200e+01, 0, 6.001900e+01, 0, 0, 128
2.038200e+01, 0, 6.001900e+01, 0, 0, 128
2.838200e+01, 0, 6.001900e+01, 0, 0, 128
3.638200e+01, 0, 6.001900e+01, 0, 0, 128
4.438200e+01, 0, 6.001900e+01, 0, 0, 128
5.238200e+01, 0, 6.001900e+01, 0, 0, 128
6.038200e+01, 0, 6.001900e+01, 0, 0, 128
6.838200e+01, 0, 6.001900e+01, 0, 0, 128
1.238200e+01, 0, 5.201900e+01, 0, 0, 128
2.038200e+01, 0, 5.201900e+01, 0, 0, 128
2.838200e+01, 0, 5.201900e+01, 0, 0, 128
3.638200e+01, 0, 5.201900e+01, 0, 0, 128
4.438200e+01, 0, 5.201900e+01, 0, 0, 128
5.238200e+01, 0, 5.201900e+01, 0, 0, 128
6.038200e+01, 0, 5.201900e+01, 0, 0, 128
6.838200e+01, 0, 5.201900e+01, 0, 0, 128
1.238200e+01, 0, 4.401900e+01, 0, 0, 128
2.038200e+01, 0, 4.401900e+01, 0, 0, 128
2.838200e+01, 0, 4.401900e+01, 0, 0, 128
3.638200e+01, 0, 4.401900e+01, 0, 0, 128
4.438200e+01, 0, 4.401900e+01, 0, 0, 128
5.238200e+01, 0, 4.401900e+01, 0, 0, 128
6.038200e+01, 0, 4.401900e+01, 0, 0, 128
6.838200e+01, 0, 4.401900e+01, 0, 0, 128
1.238200e+01, 0, 3.601900e+01, 0, 0, 128
2.038200e+01, 0, 3.601900e+01, 0, 0, 128
2.838200e+01, 0, 3.601900e+01, 0, 0, 128
3.638200e+01, 0, 3.601900e+01, 0, 0, 128
4.438200e+01, 0, 3.601900e+01, 0, 0, 128
5.238200e+01, 0, 3.601900e+01, 0, 0, 128
6.038200e+01, 0, 3.601900e+01, 0, 0, 128
6.838200e+01, 0, 3.601900e+01, 0, 0, 128
1.238200e+01, 0, 2.801900e+01, 0, 0, 128
2.038200e+01, 0, 2.801900e+01, 0, 0, 128
2.838200e+01, 0, 2.801900e+01, 0, 0, 128
3.638200e+01, 0, 2.801900e+01, 0, 0, 128
4.438200e+01, 0, 2.801900e+01, 0, 0, 128
5.238200e+01, 0, 2.801900e+01, 0, 0, 128
6.038200e+01, 0, 2.801900e+01, 0, 0, 128
6.838200e+01, 0, 2.801900e+01, 0, 0, 128
1.196009e+01, 3.204697e+00, 6.801900e+01, 0, 0, 191
1.968750e+01, 5.275250e+00, 6.801900e+01, 0, 0, 191
2.741491e+01, 7.345802e+00, 6.801900e+01, 0, 0, 191
3.514231e+01, 9.416354e+00, 6.801900e+01, 0, 0, 191
4.286972e+01, 1.148691e+01, 6.801900e+01, 0, 0, 191
5.059713e+01, 1.355746e+01, 6.801900e+01, 0, 0, 191
5.832453e+01, 1.562801e+01, 6.801900e+01, 0, 0, 191
6.605194e+01, 1.769856e+01, 6.801900e+01, 0, 0, 191
1.196009e+01, 3.204697e+00, 6.001900e+01, 0, 0, 191
1.968750e+01, 5.275250e+00, 6.001900e+01, 0, 0, 191
2.741491e+01, 7.345802e+00, 6.001900e+01, 0, 0, 191
3.514231e+01, 9.416354e+00, 6.001900e+01, 0, 0, 191
4.286972e+01, 1.148691e+01, 6.001900e+01, 0, 0, 191
5.059713e+01, 1.355746e+01, 6.001900e+01, 0, 0, 191
5.832453e+01, 1.562801e+01, 6.001900e+01, 0, 0, 191
6.605194e+01, 1.769856e+01, 6.001900e+01, 0, 0, 191
1.196009e+01, 3.204697e+00, 5.201900e+01, 0, 0, 191
1.968750e+01, 5.275250e+00, 5.201900e+01, 0, 0, 191
2.741491e+01, 7.345802e+00, 5.201900e+01, 0, 0, 191
3.514231e+01, 9.416354e+00, 5.201900e+01, 0, 0, 191
4.286972e+01, 1.148691e+01, 5.201900e+01, 0, 0, 191
5.059713e+01, 1.355746e+01, 5.201900e+01, 0, 0, 191
5.832453e+01, 1.562801e+01, 5.201900e+01, 0, 0, 191
6.605194e+01, 1.769856e+01, 5.201900e+01, 0, 0, 191
1.196009e+01, 3.204697e+00, 4.401900e+01, 0, 0, 191
1.968750e+01, 5.275250e+00, 4.401900e+01, 0, 0, 191
2.741491e+01, 7.345802e+00, 4.401900e+01, 0, 0, 191
3.514231e+01, 9.416354e+00, 4.401900e+01, 0, 0, 191
4.286972e+01, 1.148691e+01, 4.401900e+01, 0, 0, 191
5.059713e+01, 1.355746e+01, 4.401900e+01, 0, 0, 191
5.832453e+01, 1.562801e+01, 4.401900e+01, 0, 0, 191
6.605194e+01, 1.769856e+01, 4.401900e+01, 0, 0, 191
1.196009e+01, 3.204697e+00, 3.601900e+01, 0, 0, 191
1.968750e+01, 5.275250e+00, 3.601900e+01, 0, 0, 191
2.741491e+01, 7.345802e+00, 3.601900e+01, 0, 0, 191
3.514231e+01, 9.416354e+00, 3.601900e+01, 0, 0, 191
4.286972e+01, 1.148691e+01, 3.601900e+01, 0, 0, 191
5.059713e+01, 1.355746e+01, 3.601900e+01, 0, 0, 191
5.832453e+01, 1.562801e+01, 3.601900e+01, 0, 0, 191
6.605194e+01, 1.769856e+01, 3.601900e+01, 0, 0, 191
1.196009e+01, 3.204697e+00, 2.801900e+01, 0, 0, 191
1.968750e+01, 5.275250e+00, 2.801900e+01, 0, 0, 191
2.741491e+01, 7.345802e+00, 2.801900e+01, 0, 0, 191
3.514231e+01, 9.416354e+00, 2.801900e+01, 0, 0, 191
4.286972e+01, 1.148691e+01, 2.801900e+01, 0, 0, 191
5.059713e+01, 1.355746e+01, 2.801900e+01, 0, 0, 191
5.832453e+01, 1.562801e+01, 2.801900e+01, 0, 0, 191
6.605194e+01, 1.769856e+01, 2.801900e+01, 0, 0, 191
1.072313e+01, 6.191000e+00, 6.801900e+01, 0, 0, 255
1.765133e+01, 1.019100e+01, 6.801900e+01, 0, 0, 255
2.457953e+01, 1.419100e+01, 6.801900e+01, 0, 0, 255
3.150774e+01, 1.819100e+01, 6.801900e+01, 0, 0, 255
3.843594e+01, 2.219100e+01, 6.801900e+01, 0, 0, 255
4.536414e+01, 2.619100e+01, 6.801900e+01, 0, 0, 255
5.229235e+01, 3.019100e+01, 6.801900e+01, 0, 0, 255
5.922055e+01, 3.419100e+01, 6.801900e+01, 0, 0, 255
1.072313e+01, 6.191000e+00, 6.001900e+01, 0, 0, 255
1.765133e+01, 1.019100e+01, 6.001900e+01, 0, 0, 255
2.457953e+01, 1.419100e+01, 6.001900e+01, 0, 0, 255
3.150774e+01, 1.819100e+01, 6.001900e+01, 0, 0, 255
3.843594e+01, 2.219100e+01, 6.001900e+01, 0, 0, 255
4.536414e+01, 2.619100e+01, 6.001900e+01, 0, 0, 255
5.229235e+01, 3.019100e+01, 6.001900e+01, 0, 0, 255
5.922055e+01, 3.419100e+01, 6.001900e+01, 0, 0, 255
1.072313e+01, 6.191000e+00, 5.201900e+01, 0, 0, 255
1.765133e+01, 1.019100e+01, 5.201900e+01, 0, 0, 255
2.457953e+01, 1.419100e+01, 5.201900e+01, 0, 0, 255
3.150774e+01, 1.819100e+01, 5.201900e+01, 0, 0, 255
3.843594e+01, 2.219100e+01, 5.201900e+01, 0, 0, 255
4.536414e+01, 2.619100e+01, 5.201900e+01, 0, 0, 255
5.229235e+01, 3.019100e+01, 5.201900e+01, 0, 0, 255
5.922055e+01, 3.419100e+01, 5.201900e+01, 0, 0, 255
1.072313e+01, 6.191000e+00, 4.401900e+01, 0, 0, 255
1.765133e+01, 1.019100e+01, 4.401900e+01, 0, 0, 255
2.457953e+01, 1.419100e+01, 4.401900e+01, 0, 0, 255
3.150774e+01, 1.819100e+01, 4.401900e+01, 0, 0, 255
3.843594e+01, 2.219100e+01, 4.401900e+01, 0, 0, 255
4.536414e+01, 2.619100e+01, 4.401900e+01, 0, 0, 255
5.229235e+01, 3.019100e+01, 4.401900e+01, 0, 0, 255
5.922055e+01, 3.419100e+01, 4.401900e+01, 0, 0, 255
1.072313e+01, 6.191000e+00, 3.601900e+01, 0, 0, 255
1.765133e+01, 1.019100e+01, 3.601900e+01, 0, 0, 255
2.457953e+01, 1.419100e+01, 3.601900e+01, 0, 0, 255
3.150774e+01, 1.819100e+01, 3.601900e+01, 0, 0, 255
3.843594e+01, 2.219100e+01, 3.601900e+01, 0, 0, 255
4.536414e+01, 2.619100e+01, 3.601900e+01, 0, 0, 255
5.229235e+01, 3.019100e+01, 3.601900e+01, 0, 0, 255
5.922055e+01, 3.419100e+01, 3.601900e+01, 0, 0, 255
1.072313e+01, 6.191000e+00, 2.801900e+01, 0, 0, 255
1.765133e+01, 1.019100e+01, 2.801900e+01, 0, 0, 255
2.457953e+01, 1.419100e+01, 2.801900e+01, 0, 0, 255
3.150774e+01, 1.819100e+01, 2.801900e+01, 0, 0, 255
3.843594e+01, 2.219100e+01, 2.801900e+01, 0, 0, 255
4.536414e+01, 2.619100e+01, 2.801900e+01, 0, 0, 255
5.229235e+01, 3.019100e+01, 2.801900e+01, 0, 0, 255
5.922055e+01, 3.419100e+01, 2.801900e+01, 0, 0, 255
