9.485162e+00, -7.958996e+00, 6.801900e+01, 0, 0, 1
1.561352e+01, -1.310130e+01, 6.801900e+01, 0, 0, 1
2.174187e+01, -1.824360e+01, 6.801900e+01, 0, 0, 1
2.787023e+01, -2.338590e+01, 6.801900e+01, 0, 0, 1
3.399858e+01, -2.852820e+01, 6.801900e+01, 0, 0, 1
4.012694e+01, -3.367050e+01, 6.801900e+01, 0, 0, 1
4.625530e+01, -3.881280e+01, 6.801900e+01, 0, 0, 1
5.238365e+01, -4.395510e+01, 6.801900e+01, 0, 0, 1
9.485162e+00, -7.958996e+00, 6.001900e+01, 0, 0, 1
1.561352e+01, -1.310130e+01, 6.001900e+01, 0, 0, 1
2.174187e+01, -1.824360e+01, 6.001900e+01, 0, 0, 1
2.787023e+01, -2.338590e+01, 6.001900e+01, 0, 0, 1
3.399858e+01, -2.852820e+01, 6.001900e+01, 0, 0, 1
4.012694e+01, -3.367050e+01, 6.001900e+01, 0, 0, 1
4.625530e+01, -3.881280e+01, 6.001900e+01, 0, 0, 1
5.238365e+01, -4.395510e+01, 6.001900e+01, 0, 0, 1
9.485162e+00, -7.958996e+00, 5.201900e+01, 0, 0, 1
1.561352e+01, -1.310130e+01, 5.201900e+01, 0, 0, 1
2.174187e+01, -1.824360e+01, 5.201900e+01, 0, 0, 1
2.787023e+01, -2.338590e+01, 5.201900e+01, 0, 0, 1
3.399858e+01, -2.852820e+01, 5.201900e+01, 0, 0, 1
4.012694e+01, -3.367050e+01, 5.201900e+01, 0, 0, 1
4.625530e+01, -3.881280e+01, 5.201900e+01, 0, 0, 1
5.238365e+01, -4.395510e+01, 5.201900e+01, 0, 0, 1
9.485162e+00, -7.958996e+00, 4.401900e+01, 0, 0, 1
1.561352e+01, -1.310130e+01, 4.401900e+01, 0, 0, 1
2.174187e+01, -1.824360e+01, 4.401900e+01, 0, 0, 1
2.787023e+01, -2.338590e+01, 4.401900e+01, 0, 0, 1
3.399858e+01, -2.852820e+01, 4.401900e+01, 0, 0, 1
4.012694e+01, -3.367050e+01, 4.401900e+01, 0, 0, 1
4.625530e+01, -3.881280e+01, 4.401900e+01, 0, 0, 1
5.238365e+01, -4.395510e+01, 4.401900e+01, 0, 0, 1
9.485162e+00, -7.958996e+00, 3.601900e+01, 0, 0, 1
1.561352e+01, -1.310130e+01, 3.601900e+01, 0, 0, 1
2.174187e+01, -1.824360e+01, 3.601900e+01, 0, 0, 1
2.787023e+01, -2.338590e+01, 3.601900e+01, 0, 0, 1
3.399858e+01, -2.852820e+01, 3.601900e+01, 0, 0, 1
4.012694e+01, -3.367050e+01, 3.601900e+01, 0, 0, 1
4.625530e+01, -3.881280e+01, 3.601900e+01, 0, 0, 1
5.238365e+01, -4.395510e+01, 3.601900e+01, 0, 0, 1
9.485162e+00, -7.958996e+00, 2.801900e+01, 0, 0, 1
1.561352e+01, -1.310130e+01, 2.801900e+01, 0, 0, 1
2.174187e+01, -1.824360e+01, 2.801900e+01, 0, 0, 1
2.787023e+01, -2.338590e+01, 2.801900e+01, 0, 0, 1
3.399858e+01, -2.852820e+01, 2.801900e+01, 0, 0, 1
4.012694e+01, -3.367050e+01, 2.801900e+01, 0, 0, 1
4.625530e+01, -3.881280e+01, 2.801900e+01, 0, 0, 1
5.238365e+01, -4.395510e+01, 2.801900e+01, 0, 0, 1
1.163527e+01, -4.234893e+00, 6.801900e+01, 0, 0, 64
1.915281e+01, -6.971055e+00, 6.801900e+01, 0, 0, 64
2.667036e+01, -9.707216e+00, 6.801900e+01, 0, 0, 64
3.418790e+01, -1.244338e+01, 6.801900e+01, 0, 0, 64
4.170544e+01, -1.517954e+01, 6.801900e+01, 0, 0, 64
4.922298e+01, -1.791570e+01, 6.801900e+01, 0, 0, 64
5.674052e+01, -2.065186e+01, 6.801900e+01, 0, 0, 64
6.425806e+01, -2.338802e+01, 6.801900e+01, 0, 0, 64
1.163527e+01, -4.234893e+00, 6.001900e+01, 0, 0, 64
1.915281e+01, -6.971055e+00, 6.001900e+01, 0, 0, 64
2.667036e+01, -9.707216e+00, 6.001900e+01, 0, 0, 64
3.418790e+01, -1.244338e+01, 6.001900e+01, 0, 0, 64
4.170544e+01, -1.517954e+01, 6.001900e+01, 0, 0, 64
4.922298e+01, -1.791570e+01, 6.001900e+01, 0, 0, 64
5.674052e+01, -2.065186e+01, 6.001900e+01, 0, 0, 64
6.425806e+01, -2.338802e+01, 6.001900e+01, 0, 0, 64
1.163527e+01, -4.234893e+00, 5.201900e+01, 0, 0, 64
1.915281e+01, -6.971055e+00, 5.201900e+01, 0, 0, 64
2.667036e+01, -9.707216e+00, 5.201900e+01, 0, 0, 64
3.418790e+01, -1.244338e+01, 5.201900e+01, 0, 0, 64
4.170544e+01, -1.517954e+01, 5.201900e+01, 0, 0, 64
4.922298e+01, -1.791570e+01, 5.201900e+01, 0, 0, 64
5.674052e+01, -2.065186e+01, 5.201900e+01, 0, 0, 64
6.425806e+01, -2.338802e+01, 5.201900e+01, 0, 0, 64
1.163527e+01, -4.234893e+00, 4.401900e+01, 0, 0, 64
1.915281e+01, -6.971055e+00, 4.401900e+01, 0, 0, 64
2.667036e+01, -9.707216e+00, 4.401900e+01, 0, 0, 64
3.418790e+01, -1.244338e+01, 4.401900e+01, 0, 0, 64
4.170544e+01, -1.517954e+01, 4.401900e+01, 0, 0, 64
4.922298e+01, -1.791570e+01, 4.401900e+01, 0, 0, 64
5.674052e+01, -2.065186e+01, 4.401900e+01, 0, 0, 64
6.425806e+01, -2.338802e+01, 4.401900e+01, 0, 0, 64
1.163527e+01, -4.234893e+00, 3.601900e+01, 0, 0, 64
1.915281e+01, -6.971055e+00, 3.601900e+01, 0, 0, 64
2.667036e+01, -9.707216e+00, 3.601900e+01, 0, 0, 64
3.418790e+01, -1.244338e+01, 3.601900e+01, 0, 0, 64
4.170544e+01, -1.517954e+01, 3.601900e+01, 0, 0, 64
4.922298e+01, -1.791570e+01, 3.601900e+01, 0, 0, 64
5.674052e+01, -2.065186e+01, 3.601900e+01, 0, 0, 64
6.425806e+01, -2.338802e+01, 3.601900e+01, 0, 0, 64
1.163527e+01, -4.234893e+00, 2.801900e+01, 0, 0, 64
1.915281e+01, -6.971055e+00, 2.801900e+01, 0, 0, 64
2.667036e+01, -9.707216e+00, 2.801900e+01, 0, 0, 64
3.418790e+01, -1.244338e+01, 2.801900e+01, 0, 0, 64
4.170544e+01, -1.517954e+01, 2.801900e+01, 0, 0, 64
4.922298e+01, -1.791570e+01, 2.801900e+01, 0, 0, 64
5.674052e+01, -2.065186e+01, 2.801900e+01, 0, 0, 64
6.425806e+01, -2.338802e+01, 2.801900e+01, 0, 0, 64
1.238200e+01, 0, 6.801900e+01, 0, 0, 128
2.038200e+01, 0, 6.801900e+01, 0, 0, 128
2.838200e+01, 0, 6.801900e+01, 0, 0, 128
3.638200e+01, 0, 6.801900e+01, 0, 0, 128
4.438200e+01, 0, 6.801900e+01, 0, 0, 128
5.238200e+01, 0, 6.801900e+01, 0, 0, 128
6.038200e+01, 0, 6.801900e+01, 0, 0, 128
6.838200e+01, 0, 6.801900e+01, 0, 0, 128
1.238200e+01, 0, 6.001900e+01, 0, 0, 128
2.038200e+01, 0, 6.001900e+01, 0, 0, 128
2.838200e+01, 0, 6.001900e+01, 0, 0, 128
3.638200e+01, 0, 6.001900e+01, 0, 0, 128
4.438200e+01, 0, 6.001900e+01, 0, 0, 128
5.238200e+01, 0, 6.001900e+01, 0, 0, 128
6.038200e+01, 0, 6.001900e+01, 0, 0, 128
6.838200e+01, 0, 6.001900e+01, 0, 0, 128
1.238200e+01, 0, 5.201900e+01, 0, 0, 128
2.038200e+01, 0, 5.201900e+01, 0, 0, 128
2.838200e+01, 0, 5.201900e+01, 0, 0, 128
3.638200e+01, 0, 5.201900e+01, 0, 0, 128
4.438200e+01, 0, 5.201900e+01, 0, 0, 128
5.238200e+01, 0, 5.201900e+01, 0, 0, 128
6.038200e+01, 0, 5.201900e+01, 0, 0, 128
6.838200e+01, 0, 5.201900e+01, 0, 0, 128
1.238200e+01, 0, 4.401900e+01, 0, 0, 128
2.038200e+01, 0, 4.401900e+01, 0, 0, 128
2.838200e+01, 0, 4.401900e+01, 0, 0, 128
3.638200e+01, 0, 4.401900e+01, 0, 0, 128
4.438200e+01, 0, 4.401900e+01, 0, 0, 128
5.238200e+01, 0, 4.401900e+01, 0, 0, 128
6.038200e+01, 0, 4.401900e+01, 0, 0, 128
6.838200e+01, 0, 4.401900e+01, 0, 0, 128
1.238200e+01, 0, 3.601900e+01, 0, 0, 128
2.038200e+01, 0, 3.601900e+01, 0, 0, 128
2.838200e+01, 0, 3.601900e+01, 0, 0, 128
3.638200e+01, 0, 3.601900e+01, 0, 0, 128
4.438200e+01, 0, 3.601900e+01, 0, 0, 128
5.238200e+01, 0, 3.601900e+01, 0, 0, 128
6.038200e+01, 0, 3.601900e+01, 0, 0, 128
6.838200e+01, 0, 3.601900e+01, 0, 0, 128
1.238200e+01, 0, 2.801900e+01, 0, 0, 128
2.038200e+01, 0, 2.801900e+01, 0, 0, 128
2.838200e+01, 0, 2.801900e+01, 0, 0, 128
3.638200e+01, 0, 2.801900e+01, 0, 0, 128
4.438200e+01, 0, 2.801900e+01, 0, 0, 128
5.238200e+01, 0, 2.801900e+01, 0, 0, 128
6.038200e+01, 0, 2.801900e+01, 0, 0, 128
6.838200e+01, 0, 2.801900e+01, 0, 0, 128
1.163527e+01, 4.234893e+00, 6.801900e+01, 0, 0, 191
1.915281e+01, 6.971055e+00, 6.801900e+01, 0, 0, 191
2.667036e+01, 9.707216e+00, 6.801900e+01, 0, 0, 191
3.418790e+01, 1.244338e+01, 6.801900e+01, 0, 0, 191
4.170544e+01, 1.517954e+01, 6.801900e+01, 0, 0, 191
4.922298e+01, 1.791570e+01, 6.801900e+01, 0, 0, 191
5.674052e+01, 2.065186e+01, 6.801900e+01, 0, 0, 191
6.425806e+01, 2.338802e+01, 6.801900e+01, 0, 0, 191
1.163527e+01, 4.234893e+00, 6.001900e+01, 0, 0, 191
1.915281e+01, 6.971055e+00, 6.001900e+01, 0, 0, 191
2.667036e+01, 9.707216e+00, 6.001900e+01, 0, 0, 191
3.418790e+01, 1.244338e+01, 6.001900e+01, 0, 0, 191
4.170544e+01, 1.517954e+01, 6.001900e+01, 0, 0, 191
4.922298e+01, 1.791570e+01, 6.001900e+01, 0, 0, 191
5.674052e+01, 2.065186e+01, 6.001900e+01, 0, 0, 191
6.425806e+01, 2.338802e+01, 6.001900e+01, 0, 0, 191
1.163527e+01, 4.234893e+00, 5.201900e+01, 0, 0, 191
1.915281e+01, 6.971055e+00, 5.201900e+01, 0, 0, 191
2.667036e+01, 9.707216e+00, 5.201900e+01, 0, 0, 191
3.418790e+01, 1.244338e+01, 5.201900e+01, 0, 0, 191
4.170544e+01, 1.517954e+01, 5.201900e+01, 0, 0, 191
4.922298e+01, 1.791570e+01, 5.201900e+01, 0, 0, 191
5.674052e+01, 2.065186e+01, 5.201900e+01, 0, 0, 191
6.425806e+01, 2.338802e+01, 5.201900e+01, 0, 0, 191
1.163527e+01, 4.234893e+00, 4.401900e+01, 0, 0, 191
1.915281e+01, 6.971055e+00, 4.401900e+01, 0, 0, 191
2.667036e+01, 9.707216e+00, 4.401900e+01, 0, 0, 191
3.418790e+01, 1.244338e+01, 4.401900e+01, 0, 0, 191
4.170544e+01, 1.517954e+01, 4.401900e+01, 0, 0, 191
4.922298e+01, 1.791570e+01, 4.401900e+01, 0, 0, 191
5.674052e+01, 2.065186e+01, 4.401900e+01, 0, 0, 191
6.425806e+01, 2.338802e+01, 4.401900e+01, 0, 0, 191
1.163527e+01, 4.234893e+00, 3.601900e+01, 0, 0, 191
1.915281e+01, 6.971055e+00, 3.601900e+01, 0, 0, 191
2.667036e+01, 9.707216e+00, 3.601900e+01, 0, 0, 191
3.418790e+01, 1.244338e+01, 3.601900e+01, 0, 0, 191
4.170544e+01, 1.517954e+01, 3.601900e+01, 0, 0, 191
4.922298e+01, 1.791570e+01, 3.601900e+01, 0, 0, 191
5.674052e+01, 2.065186e+01, 3.601900e+01, 0, 0, 191
6.425806e+01, 2.338802e+01, 3.601900e+01, 0, 0, 191
1.163527e+01, 4.234893e+00, 2.801900e+01, 0, 0, 191
1.915281e+01, 6.971055e+00, 2.801900e+01, 0, 0, 191
2.667036e+01, 9.707216e+00, 2.801900e+01, 0, 0, 191
3.418790e+01, 1.244338e+01, 2.801900e+01, 0, 0, 191
4.170544e+01, 1.517954e+01, 2.801900e+01, 0, 0, 191
4.922298e+01, 1.791570e+01, 2.801900e+01, 0, 0, 191
5.674052e+01, 2.065186e+01, 2.801900e+01, 0, 0, 191
6.425806e+01, 2.338802e+01, 2.801900e+01, 0, 0, 191
9.485162e+00, 7.958996e+00, 6.801900e+01, 0, 0, 255
1.561352e+01, 1.310130e+01, 6.801900e+01, 0, 0, 255
2.174187e+01, 1.824360e+01, 6.801900e+01, 0, 0, 255
2.787023e+01, 2.338590e+01, 6.801900e+01, 0, 0, 255
3.399858e+01, 2.852820e+01, 6.801900e+01, 0, 0, 255
4.012694e+01, 3.367050e+01, 6.801900e+01, 0, 0, 255
4.625530e+01, 3.881280e+01, 6.801900e+01, 0, 0, 255
5.238365e+01, 4.395510e+01, 6.801900e+01, 0, 0, 255
9.485162e+00, 7.958996e+00, 6.001900e+01, 0, 0, 255
1.561352e+01, 1.310130e+01, 6.001900e+01, 0, 0, 255
2.174187e+01, 1.824360e+01, 6.001900e+01, 0, 0, 255
2.787023e+01, 2.338590e+01, 6.001900e+01, 0, 0, 255
3.399858e+01, 2.852820e+01, 6.001900e+01, 0, 0, 255
4.012694e+01, 3.367050e+01, 6.001900e+01, 0, 0, 255
4.625530e+01, 3.881280e+01, 6.001900e+01, 0, 0, 255
5.238365e+01, 4.395510e+01, 6.001900e+01, 0, 0, 255
9.485162e+00, 7.958996e+00, 5.201900e+01, 0, 0, 255
1.561352e+01, 1.310130e+01, 5.201900e+01, 0, 0, 255
2.174187e+01, 1.824360e+01, 5.201900e+01, 0, 0, 255
2.787023e+01, 2.338590e+01, 5.201900e+01, 0, 0, 255
3.399858e+01, 2.852820e+01, 5.201900e+01, 0, 0, 255
4.012694e+01, 3.367050e+01, 5.201900e+01, 0, 0, 255
4.625530e+01, 3.881280e+01, 5.201900e+01, 0, 0, 255
5.238365e+01, 4.395510e+01, 5.201900e+01, 0, 0, 255
9.485162e+00, 7.958996e+00, 4.401900e+01, 0, 0, 255
1.561352e+01, 1.310130e+01, 4.401900e+01, 0, 0, 255
2.174187e+01, 1.824360e+01, 4.401900e+01, 0, 0, 255
2.787023e+01, 2.338590e+01, 4.401900e+01, 0, 0, 255
3.399858e+01, 2.852820e+01, 4.401900e+01, 0, 0, 255
4.012694e+01, 3.367050e+01, 4.401900e+01, 0, 0, 255
4.625530e+01, 3.881280e+01, 4.401900e+01, 0, 0, 255
5.238365e+01, 4.395510e+01, 4.401900e+01, 0, 0, 255
9.485162e+00, 7.958996e+00, 3.601900e+01, 0, 0, 255
1.561352e+01, 1.310130e+01, 3.601900e+01, 0, 0, 255
2.174187e+01, 1.824360e+01, 3.601900e+01, 0, 0, 255
2.787023e+01, 2.338590e+01, 3.601900e+01, 0, 0, 255
3.399858e+01, 2.852820e+01, 3.601900e+01, 0, 0, 255
4.012694e+01, 3.367050e+01, 3.601900e+01, 0, 0, 255
4.625530e+01, 3.881280e+01, 3.601900e+01, 0, 0, 255
5.238365e+01, 4.395510e+01, 3.601900e+01, 0, 0, 255
9.485162e+00, 7.958996e+00, 2.801900e+01, 0, 0, 255
1.561352e+01, 1.310130e+01, 2.801900e+01, 0, 0, 255
2.174187e+01, 1.824360e+01, 2.801900e+01, 0, 0, 255
2.787023e+01, 2.338590e+01, 2.801900e+01, 0, 0, 255
3.399858e+01, 2.852820e+01, 2.801900e+01, 0, 0, 255
4.012694e+01, 3.367050e+01, 2.801900e+01, 0, 0, 255
4.625530e+01, 3.881280e+01, 2.801900e+01, 0, 0, 255
5.238365e+01, 4.395510e+01, 2.801900e+01, 0, 0, 255
